ply
format ascii 1.0
comment PCL generated
element vertex 1474
property float x
property float y
property float z
element face 0
element camera 0
property float view_px
property float view_py
property float view_pz
property float x_axisx
property float x_axisy
property float x_axisz
property float y_axisx
property float y_axisy
property float y_axisz
property float z_axisx
property float z_axisy
property float z_axisz
property float focal
property float scalex
property float scaley
property float centerx
property float centery
property int viewportx
property int viewporty
property float k1
property float k2
end_header
0.29113021 0.97179598 8.6698284
0.33492848 1.0617353 8.8451414
0.32009986 0.9873817 8.5916376
0.51373589 1.027989 8.7932663
0.43538782 0.90260839 8.7770596
0.51485366 1.038457 8.7171888
0.61593127 0.90950835 8.6894417
0.39075625 0.86986744 8.9268799
0.50701934 0.8778308 8.8249178
0.31979814 0.95195812 8.936451
-0.48889092 0.96836168 8.7668066
-0.45077634 1.0362285 8.7516956
-0.40498412 0.93940198 8.7709398
-0.6085999 1.0408088 8.7109613
-0.35905665 1.0966945 8.6593981
-0.32810214 1.0557185 8.5756922
-0.36585581 0.79820806 8.8312721
-0.3086684 0.95094758 8.9036274
-0.47114339 0.94606835 8.8852186
-1.1005687 0.37092385 8.7675152
-1.1549716 0.55448973 8.7314472
-0.97335321 0.44086671 8.7541008
-1.0023191 0.33197275 8.6603298
-1.1135384 0.5387302 8.7690058
-1.065237 0.49403614 8.6296721
-0.87757677 0.33308652 8.9642229
-0.91601938 0.41774175 8.7837982
-0.97429258 0.4006106 8.8249826
-1.0990571 -0.56687099 8.7162018
-1.2108419 -0.41970596 8.8028965
-0.97278893 -0.35856795 8.626194
-0.93211675 -0.47303858 8.6387949
-1.1330918 -0.23452914 8.661211
-1.0618559 -0.2834748 8.8461285
-0.9420681 -0.30495602 8.8652725
-1.0257421 -0.23893745 8.930582
-0.9749099 -0.50424546 8.8099871
-0.4252589 -0.94065696 8.7593899
-0.42416501 -1.0371284 8.707365
-0.57787204 -1.0500082 8.7096186
-0.47566769 -0.96774644 8.5639973
-0.50388432 -0.99271786 8.7391386
-0.48416382 -1.0728362 8.7246599
-0.62117541 -0.90608525 8.6596317
-0.61789948 -0.90101576 8.6244164
-0.57327598 -0.88922906 8.7646503
-0.43204618 -0.87615973 8.8456268
-0.35216847 -0.92426252 8.8662901
-0.34952158 -0.83668232 8.9106483
0.42311284 -1.0378287 8.6682463
0.48823956 -1.0398315 8.8238869
0.37406415 -1.0043411 8.6993904
0.39114764 -1.0978256 8.6107788
0.22323725 -0.94745398 8.692276
0.19779772 -1.1130478 8.654686
0.23486832 -0.8705889 8.9284554
0.22193009 -0.81711465 8.9027843
0.3429094 -0.75918847 8.848547
1.0019196 -0.44233155 8.700304
0.84509492 -0.35842666 8.7171278
0.90252388 -0.34649518 8.6906528
1.0367016 -0.42025006 8.8348494
0.93915755 -0.54607171 8.7499304
0.93013293 -0.6061846 8.6095657
0.83105004 -0.41024527 8.8048859
0.79106468 -0.43625543 8.8942003
0.832349 -0.24857971 8.9240437
0.81324905 0.40454498 8.9658146
0.88488764 0.19205062 8.934845
0.72355783 0.44895807 8.7570286
0.81978112 1.2717054 9.4138021
0.85203379 1.1815164 9.469346
0.91866785 1.1722609 9.4140205
0.95935071 1.349926 9.505456
1.2871931 0.12216661 9.3724165
1.2906455 0.28218809 9.4864063
1.3225535 0.26462197 9.4481039
1.3945091 0.29877299 9.4814091
1.2777885 0.21803834 9.5190077
1.3754338 0.21067318 9.3534136
0.88079458 1.0256877 9.4242201
0.89270145 1.0386336 9.456852
-0.40249631 1.4772269 9.5134611
-0.23615561 1.6140122 9.4926891
-0.30224174 1.5901291 9.5153255
-0.301072 1.4713615 9.4656258
-0.35286009 1.6324557 9.3968325
-0.3366845 1.5166796 9.492713
-1.0531095 -1.2272394 9.4991608
-0.98709607 -1.1492316 9.492384
-0.96987462 -1.2453656 9.4817801
-1.0852165 -1.2419158 9.441082
0.68547833 1.1150764 9.5253077
0.87791401 0.96215272 9.371336
0.79968494 1.1397731 9.4091272
0.74527025 1.0609311 9.4782772
0.6937359 1.0669849 9.4917383
0.72978199 1.1750128 9.4294291
-1.3775373 0.98710638 9.3859682
-1.3842993 0.9397226 9.35396
-1.3246348 0.86224049 9.4224768
-1.3738977 0.9992007 9.3605356
-1.6067916 -0.21476248 9.5370054
-1.532246 -0.13766502 9.5258703
-1.6321925 -0.28303164 9.4524193
-1.6003509 -0.23088345 9.4115133
-1.703228 -0.13808049 9.5024557
0.25390664 -1.4856385 9.5454321
0.18413122 -1.552035 9.4927731
0.25270876 -1.4970825 9.3614569
0.14450638 -1.614854 9.393012
0.14716619 -1.5575386 9.3905039
0.15954402 -1.6230159 9.4640703
1.5355042 0.31903952 9.4713202
1.5753376 0.26117748 9.4394026
1.5509771 0.31668165 9.4570446
1.5035163 0.22575371 9.4646587
1.4198234 0.15697633 9.4767313
1.1543332 -0.86229527 9.3211269
1.3109053 -0.99876934 9.4861927
1.1886628 -0.90967029 9.3423595
1.2792647 -0.95373011 9.3647366
1.2514222 -0.92114729 9.3542995
1.3167315 -1.0253901 9.403533
1.2753829 -0.96988547 9.4384775
1.4288416 0.20083292 9.4998341
1.4664571 0.22656164 9.4992142
1.545265 0.26529399 9.464283
1.3965509 0.20668481 9.4813108
1.4893011 0.25186563 9.4375544
1.5036176 0.14439856 9.4395142
1.2573378 -0.87594712 9.4751606
1.2670625 -0.90513122 9.4160509
1.1234028 -0.92280161 9.3981028
1.1334826 -0.91134942 9.3422642
1.1594388 -0.90028894 9.5243912
1.1420325 -0.91333991 9.400795
0.11167768 -1.4798425 9.4254293
0.14757615 -1.5854623 9.5046558
0.23575206 -1.6094059 9.4395742
0.24391305 -1.5066261 9.4510784
0.068197161 -1.5495613 9.4920063
0.25673237 -1.5487204 9.4510469
-0.95674908 -1.0851429 9.3366995
-0.8025803 -1.2026558 9.4661121
-0.85762036 -1.1594821 9.4439316
-1.6277529 -0.21301019 9.4279556
-1.4908822 -0.18000787 9.4265289
-1.6267503 -0.19715501 9.5115118
-1.6836696 -0.18756087 9.4613209
-1.5803701 -0.16522507 9.3350468
-1.5709479 -0.21767025 9.379693
-1.3204424 0.98215276 9.5096312
-1.2434726 0.86082393 9.3698454
-1.33924 0.96717793 9.4204206
-1.2797047 0.96932465 9.4342947
-1.2195203 0.96764648 9.4760437
-1.2703491 0.96440357 9.4587402
-0.16971336 1.4870015 9.4651489
-0.28751507 1.339295 9.3915653
-0.19976108 1.5026096 9.5094404
0.85581207 1.1017876 9.4141951
0.78454465 1.0615174 9.5537395
0.82001549 1.1087121 9.5055017
-0.27832732 1.4153304 9.4151268
-0.23827007 1.3519754 9.5474596
-0.26883474 1.3830343 9.4878845
-0.18077251 1.2590494 9.4732866
-0.29067144 1.4339849 9.4160719
-0.24456815 1.2880285 9.4752579
-1.2103153 0.79249072 9.4536657
-1.12594 0.72748989 9.4072628
-1.1100036 0.76707423 9.3839884
-1.1656492 0.81965548 9.4858875
-1.1412262 0.88847435 9.3508596
-1.0630145 0.82942897 9.4916744
-1.3876737 -0.20449677 9.3945141
-1.4766854 -0.23870955 9.4148092
-1.3978307 -0.28779212 9.3516102
-1.4853398 -0.17519316 9.5101557
-1.3364834 -0.19906956 9.5371923
-1.2820203 -0.14789902 9.3559513
-0.77457106 -1.0692574 9.444603
-0.89379793 -1.1253077 9.3751287
-0.83568299 -1.1774796 9.3877754
-0.7820763 -1.1254179 9.3609047
-0.79336786 -1.0623717 9.5277643
-0.9010824 -1.1497908 9.4178562
0.18310209 -1.4133937 9.4986076
0.1492646 -1.2637602 9.5151663
0.20780501 -1.2718538 9.5410519
0.18176664 -1.4408895 9.401556
0.16355169 -1.413355 9.3555002
0.21510181 -1.3337936 9.3703661
1.0731595 -0.74154413 9.4618454
1.0362164 -0.83679932 9.5246544
1.1203424 -0.72262889 9.494009
1.120454 -0.74082136 9.5451584
1.0549198 -0.86582947 9.4371777
1.1147586 -0.71743441 9.4405375
1.1030892 -0.14268865 8.9185266
1.1425947 -0.17941442 9.0922222
1.0353491 -0.32071841 9.0129757
1.1577653 -0.15761258 8.9754925
0.92779517 -0.89376873 9.3736143
0.89375091 -0.79015422 9.3879719
-0.30054694 -1.154287 8.936058
-0.26176289 -1.2383696 8.990942
-0.20905343 -1.2427832 8.9375792
-0.37355345 -1.2118506 8.9528141
-0.98958117 -1.1247405 9.3810787
-0.85280734 -0.96350181 9.3272905
-1.3682642 -0.18144549 9.37257
-1.3757726 -0.089863993 9.4296551
-1.0824902 0.78888136 9.2846994
-1.0933465 0.79827541 9.431982
-0.11969625 1.3317974 9.3433857
-0.073909119 1.4184273 9.3523464
0.91916853 0.48521718 8.9363298
0.86085182 0.47703767 9.0823069
0.88834047 0.62013942 8.9776487
0.85818499 0.59813637 8.9414206
1.0017827 0.5526275 9.0772362
0.97557348 0.504682 9.0276146
1.0265232 -0.29247507 9.0469742
1.0576662 -0.4332453 9.1246233
0.99115545 -0.2762841 8.9108391
0.88613349 -0.37412259 9.0567656
0.21589603 -1.4420079 9.3629341
0.2864919 -1.4784254 9.2832985
-0.83156526 -1.2542851 9.378974
-0.79230636 -1.173219 9.2636442
-1.4235415 -0.22130607 9.3659363
-1.5431453 -0.20079994 9.3826265
-1.1982536 0.42560342 9.0152378
-1.1769378 0.31384537 9.0301847
-1.089148 0.2171616 8.9146242
-1.021138 0.4004516 8.9257565
-0.41246083 1.3518707 9.2866831
-0.31402755 1.3518896 9.403801
0.76633978 1.3222073 9.2608681
0.80768156 1.1441945 9.4147453
1.2262832 0.40340626 9.1191187
1.138196 0.26431444 9.1261854
1.1514333 0.22589149 9.0793247
1.2035562 0.3164846 9.0194969
1.3685137 0.17713246 9.3676643
1.4219233 0.32511833 9.2030468
1.3756849 0.22904922 9.3227787
1.4421914 0.2532675 9.29
-0.081418037 1.2603095 9.0756969
-0.15536773 1.2250036 8.9820385
-0.22431107 1.4631848 9.4184999
-0.26581544 1.37995 9.212204
-0.081899256 1.0861871 9.025794
-0.12027971 1.1685514 9.2006903
-0.16227081 1.2618033 9.2759304
-0.27345681 1.3464884 9.3460903
-0.99347335 0.86983407 9.0752211
-1.0819581 0.91464001 8.9889641
-0.97982496 0.94404143 8.9331865
-1.0291173 0.91012681 8.9951458
-1.3026381 0.88493353 9.4052677
-1.2619058 0.85939342 9.3096542
-1.2872444 0.97442609 9.3456516
-1.2578969 0.87868488 9.2492228
-0.79469931 0.77929509 9.1785746
-0.84606797 0.75009769 9.1099205
-1.1206758 0.74293762 9.2960463
-1.0296886 0.86745965 9.3417521
-1.3436183 -0.071775302 9.1760283
-1.4080729 0.004774495 8.918992
-1.5576319 -0.064531885 9.3683548
-1.5884153 -0.088643514 9.3146152
-1.1191218 -0.076666705 9.0826569
-1.2818867 -0.011038355 9.2063427
-1.387702 -0.17324662 9.389348
-1.254573 -0.2042836 9.2422113
-0.85762787 -0.96309888 9.1459169
-0.99594057 -0.93976736 8.9558182
-0.99907905 -1.2341847 9.2710104
-0.98596895 -1.1321558 9.2887383
-0.84853971 -0.86592597 9.0219221
-0.88388276 -0.77265877 9.21628
-0.83358741 -0.95234197 9.3982677
-0.94873273 -0.9585529 9.3507872
0.064212836 -1.4229761 9.0209179
0.099880539 -1.3057152 9.0034342
0.1466895 -1.5668188 9.4087505
0.041013956 -1.4374176 9.2904196
0.09038803 -1.5613236 9.3414097
-0.077355951 -0.98450655 9.1324539
0.076948307 -1.0371976 9.1445217
0.047451291 -1.355688 9.3475313
0.1453803 -1.2761114 9.2398186
0.93554103 -0.78107244 9.1175194
0.94043046 -0.89981383 9.1166153
0.93994564 -0.94651252 8.9486904
0.9948225 -0.79788113 9.0266104
1.1450648 -0.95842397 9.2813282
1.0890009 -0.81102347 9.2932262
1.052796 -0.98906904 9.3508978
1.1039596 -0.92237014 9.3630533
0.83804286 -0.74732977 9.1744156
0.82109404 -0.79372144 9.1944246
0.930906 -0.74463749 9.416749
0.94698948 -0.7362045 9.2079105
1.2923082 0.023413595 9.0208817
1.149619 0.0084479097 9.0958261
1.4605385 0.11720106 9.4262676
1.3743964 0.25735244 9.3088427
1.024107 -0.038129758 9.0383453
1.1476791 0.10332818 9.1382751
1.3403686 0.13400793 9.2715712
1.2385054 0.22090144 9.2885313
0.73505533 0.78744954 9.0726881
0.65287524 0.79120755 9.1787739
0.68926728 1.0986918 9.3477497
0.78440541 0.99807763 9.2627439
0.84771961 1.0676255 9.1660194
0.8226887 0.91186708 9.1182022
0.8186053 1.24334 9.3572435
0.90036845 1.0455338 9.3158426
0.67653525 1.1484429 9.0558701
0.60727394 1.2512085 9.1549549
0.77362806 1.1440315 9.0356722
0.58254194 1.087335 9.0028067
0.84440386 1.2146095 9.3361073
0.76207244 1.2713089 9.330389
0.87559831 1.3102243 9.2477245
0.87797725 1.2608476 9.2372885
0.65129572 0.99915099 9.0968313
0.66452277 0.8764993 9.116931
0.56983125 0.93553692 9.1927767
0.52434838 1.0103297 9.1405411
0.74625498 1.1442133 9.3408079
0.71583378 1.0064069 9.4162455
0.70710063 1.0067686 9.268364
0.58929807 1.0954431 9.3431253
-0.34491435 1.1566446 8.993453
-0.44179901 1.2675997 9.0112629
-0.2850197 1.2681515 8.9995356
-0.30663696 1.1753941 9.0535612
-0.41987833 1.5244092 9.3924189
-0.35753968 1.4281693 9.3516397
-0.21042661 1.4684675 9.2811317
-0.33906132 1.4041619 9.2932911
-0.37880814 1.1747335 9.0726242
-0.33143836 1.0260456 9.0732088
-0.36561027 1.0857402 9.0927048
-0.27631596 0.97752786 8.9981766
-0.27224928 1.3675845 9.330204
-0.21178678 1.3241106 9.4205179
-0.36211675 1.193719 9.2987957
-0.28776583 1.2948719 9.2769575
-1.2390554 0.75603557 9.0246782
-1.2178059 0.69095981 9.1464605
-1.1850666 0.68074155 9.077775
-1.076789 0.64252371 9.0825033
-1.2423978 0.83564067 9.2095795
-1.2487981 0.79046208 9.4182873
-1.2901254 0.85849088 9.3346424
-1.1756208 0.82759362 9.3672295
-0.97671038 0.53564328 9.0922737
-0.96422476 0.68676263 9.078229
-1.0395597 0.5369662 9.0945625
-1.0640615 0.64955652 9.0779419
-1.1477312 0.64629179 9.3345795
-1.1016814 0.84821981 9.4044828
-1.0505892 0.71737188 9.3638239
-1.0714818 0.81231242 9.265645
-1.2135621 -0.24639082 9.1161013
-1.2509176 -0.36049256 9.1101942
-1.4099051 -0.30147138 8.9825096
-1.3560898 -0.3567757 8.9419537
-1.5156401 -0.27318224 9.3316507
-1.5402446 -0.24718222 9.3124924
-1.6011934 -0.27904016 9.2869682
-1.4492644 -0.24577639 9.2510633
-1.1779068 -0.22340715 9.0327301
-1.1576087 -0.32058272 9.0417919
-1.1146348 -0.19263002 9.0999451
-1.1790229 -0.21619351 9.0608358
-1.3027767 -0.26682487 9.3031054
-1.2305386 -0.26064813 9.3185339
-1.2822058 -0.24167961 9.3332415
-1.2119045 -0.20169613 9.3401775
-0.71895772 -1.0464091 9.0436296
-0.65479958 -1.0384523 8.9962511
-0.73223931 -1.1747448 9.0663605
-0.77547258 -1.0272828 9.0615997
-0.87769455 -1.1708184 9.2606392
-0.99585581 -1.144803 9.3938799
-1.0014917 -1.2635106 9.4074793
-0.8303166 -1.2213514 9.1853037
-0.55791283 -0.94255269 9.1560478
-0.59844083 -0.94736403 9.2466259
-0.73543411 -0.93959683 9.1470003
-0.543347 -1.0146326 9.0683155
-0.86507452 -1.0966338 9.2833996
-0.78481066 -1.0205572 9.3326244
-0.81891561 -1.0560968 9.2591333
-0.73016822 -1.0291593 9.3760033
0.18985021 -1.2356732 8.9719772
0.3635512 -1.271311 9.0795908
0.24368827 -1.3691012 9.087409
0.28535071 -1.2636018 9.0004063
0.27210286 -1.462273 9.2538548
0.1669576 -1.3847085 9.2598333
0.17217614 -1.4845859 9.3724327
0.27568623 -1.4063295 9.3523293
0.15289707 -1.3685802 9.3111725
0.26671502 -1.1529623 9.2550287
0.097315446 -1.0307153 9.0641232
0.28852904 -1.0134981 9.0214424
0.11080248 -1.04048 9.136837
0.27417704 -1.3066565 9.3840122
0.25015178 -1.2058736 9.3165846
0.28122768 -1.1494645 9.2840729
0.13880402 -1.1812775 9.3679762
1.1105289 -0.6309936 9.0333452
1.1147544 -0.6215744 9.1843624
1.1283015 -0.67221588 9.119482
1.0649028 -0.77480274 9.11376
1.0949142 -0.90274125 9.2681665
1.1260222 -0.90463436 9.3759174
1.2147112 -0.89719266 9.4061346
1.0783352 -0.87471235 9.349225
0.99226099 -0.58367997 9.0580206
0.85803485 -0.56812221 9.2108555
0.92998862 -0.52442503 9.0983992
0.80481201 -0.59361774 9.0940676
1.0423418 -0.67240566 9.3135633
0.9682551 -0.76378679 9.3036261
0.94466227 -0.65648639 9.3615294
0.94574934 -0.64934701 9.2363195
1.0849928 0.3568365 9.18011
0.99745214 0.19967146 9.0311928
1.0838788 0.19564919 9.1249418
0.93173838 0.15664652 9.172287
1.3012508 0.17820221 9.4368105
1.2858212 0.28302777 9.3436413
1.0722735 0.18370886 9.3892355
1.1097196 0.19709259 9.2089415
0.92143393 0.82270783 9.2802753
0.7470637 0.79495674 9.115613
0.89756501 0.86978912 9.2883406
0.77222848 0.92089534 9.2542458
0.932356 0.63214004 8.9509373
0.93547231 0.64374232 8.9703217
1.0322853 0.7189815 9.0727139
0.98364908 0.82824028 8.9683743
0.85408384 0.64298081 8.9682589
0.90415782 0.68933755 8.9029627
1.3194401 0.080592267 9.1724339
1.2453156 -0.030478533 9.244132
1.3977795 0.044904053 9.09338
1.3741637 -0.0416792 9.2689075
1.3094153 -0.023172919 9.0511189
1.2978854 -0.092398979 9.226861
1.1716286 -0.0014809624 9.0835686
1.3656784 -0.099750735 9.2547102
1.2594553 0.13731785 9.288209
1.3913178 0.20608103 9.2770996
1.250111 0.12490393 9.3424606
1.2142748 0.12068778 9.3103666
0.70769155 -0.95655382 9.1992359
0.77062815 -0.91120476 9.1600723
0.84040219 -0.93502092 9.2471924
0.78415668 -0.96660954 9.1367836
0.77272248 -0.99195302 8.987381
0.64845467 -1.0283518 9.0565119
0.71312189 -1.0471398 8.9850388
0.73222476 -1.061913 9.0919867
0.67748767 -0.97465301 9.0086575
0.69916981 -0.956424 9.0200586
-0.14905231 -1.2796886 9.2424784
0.029939145 -1.2806664 9.1550646
-0.20520379 -1.1954266 9.1916637
-0.037606709 -1.3979079 9.079855
-0.015057538 -1.3062506 9.2922277
0.11741254 -1.3707886 9.4555387
-0.027192673 -1.3267761 9.342432
-0.98795265 -0.85771006 9.2123146
-1.0187027 -0.72782004 9.2439032
-0.97354788 -0.95414424 9.2954559
-0.86687005 -0.98005974 9.262866
-1.0502485 -0.67735928 9.0940285
-1.0183688 -0.80277371 9.0754585
-1.0693305 -0.67864972 9.0344582
-1.1290289 -0.7207551 9.0080051
-0.99051726 -0.60820997 9.0644827
-1.0090002 -0.55484927 8.9830198
-1.2838899 0.036396798 9.1034479
-1.3742501 0.030930657 9.26896
-1.2253566 0.11663942 9.0562391
-1.2341976 -0.050154321 9.2095289
-1.3612548 0.11170498 9.3074789
-1.3943117 0.03096606 9.304904
-1.1860306 0.23579976 9.0396338
-1.3592982 0.2729241 9.0438519
-1.3133334 0.13801701 9.0547438
-1.23156 0.1869781 9.0567503
-1.2390399 0.25172189 9.0186272
-1.2348658 0.2135147 9.1181259
-1.0273254 0.95494092 9.158741
-1.0377707 0.92016953 9.2770491
-1.0033717 0.91981179 9.1351852
-1.0761935 1.0568324 9.2825928
-0.90358216 0.88570851 9.1478891
-0.78587079 1.0686561 9.0953035
-0.81616366 1.0773665 9.0623817
-0.82896209 0.99215382 9.1111526
-0.80017745 1.0095049 8.9743052
-0.6851384 1.0783631 8.9889145
-0.76152384 1.0685843 8.9739943
0.047033463 1.2980009 9.1666622
-0.083482601 1.2607818 9.0968723
-0.10015784 1.1690723 9.1548367
0.0042761378 1.1925335 9.1455135
0.029239478 1.199487 9.3151817
-0.030657731 1.1616104 9.2129107
0.10122084 1.3530704 9.0224123
0.17160667 1.3222311 8.9626694
0.069286197 1.1648207 9.0824842
0.12542193 1.1387118 8.9864731
0.23558056 1.2593631 9.0526152
0.25232923 1.1280326 8.9902201
1.1441407 0.3252438 9.1809587
0.99528664 0.39764014 9.2466965
1.0011902 0.41050324 9.0715981
1.0244827 0.42223471 9.2151756
1.1452074 0.45306703 9.2546902
1.0620542 0.33346361 9.1698313
1.0922354 0.38093433 9.2318707
1.29537 0.41811725 9.2754459
1.3794065 0.27869251 9.4200621
1.4844483 0.22526222 9.3287268
1.3891506 0.40877303 9.3828526
0.99801308 -0.49859107 9.1693974
0.99972683 -0.54036444 9.1534681
0.96104848 -0.44136932 9.1120949
1.0547979 -0.50590825 9.204442
1.1757412 -0.70429075 9.3709965
1.124385 -0.82275134 9.3035183
1.1853073 -0.84308982 9.4663563
1.2225674 -0.76820499 9.3708525
1.2382921 -0.63389891 9.2703371
0.42037684 -1.2954412 9.1371174
0.31407228 -1.2808431 9.1076212
0.28730085 -1.3949803 9.1670675
0.30936417 -1.325991 9.1942644
0.39451414 -1.0096076 8.9895239
0.4544453 -1.0704325 9.0432224
0.56259185 -1.0604975 8.9971695
0.52767307 -0.90536076 8.9510641
0.48378766 -0.93406266 8.9542913
0.45118627 -1.0605628 8.8927832
0.38317245 -1.0651317 9.008419
0.4919149 -1.0016329 9.0422945
-0.64514744 -1.0116428 9.1393757
-0.63120818 -1.1170104 9.172246
-0.5579505 -1.1807507 9.1941996
-0.57444406 -1.098186 9.1605158
-0.49888009 -1.0070928 9.055975
-0.42649955 -1.000335 9.0435677
-0.50130212 -0.96473384 9.0713968
-0.44643971 -0.96662605 8.9650707
-0.3400009 -1.1488922 8.9105015
-0.36444086 -0.94199544 9.0576267
-1.2911541 -0.4046756 9.2683611
-1.3374537 -0.50107968 9.129529
-1.3201588 -0.47007978 9.2919512
-1.2229147 -0.39006174 9.2111683
-1.3735693 -0.43071622 9.2134323
-1.3381197 -0.3505514 9.2765627
-1.0107248 -0.49182853 9.041585
-1.0563643 -0.42826393 8.9165382
-1.0715426 -0.46530268 8.9812183
-1.1422895 -0.4403868 8.9925423
-1.0201529 -0.4917506 8.9009342
-1.0506612 -0.57758343 8.9966297
-0.99987346 -0.48277006 8.9370241
-1.0992174 -0.47363612 9.0075846
-1.1702334 0.52240652 9.2685499
-1.0605127 0.49079123 9.1301365
-1.0813498 0.53404707 9.1280622
-1.1116712 0.55813944 9.190917
-1.2137196 0.82644534 9.277914
-1.3195758 0.89192599 9.3262634
-1.1917163 0.64752793 9.3268156
-1.2641041 0.7443378 9.3310413
-0.48540941 1.2679224 9.0938606
-0.54934096 1.2436256 9.1336794
-0.50529748 1.3324943 9.1734886
-0.3931883 1.4053378 9.1762495
-0.45395014 1.0580627 9.0799961
-0.53749752 1.0601811 9.0089951
-0.44449735 1.0996078 9.1276665
-0.52775329 0.98877108 9.1044645
-0.4798952 1.0473733 8.9611149
-0.67353964 0.94570649 9.0754271
-0.59993654 0.95933837 8.9863472
-0.56007558 0.93827206 8.9473333
0.4489277 1.1256021 9.1876965
0.54917198 1.236625 9.2183151
0.50852376 1.1949674 9.3117552
0.54550987 1.1749314 9.2105627
0.54552275 1.1272727 9.1653767
0.58878601 1.108225 9.2657766
0.34042633 0.97813982 9.0281105
0.32033044 1.1444674 8.9976273
0.34874803 1.147952 9.1214104
0.2332277 1.0501064 9.0401106
0.26998514 1.0933022 9.0917025
0.28167111 0.98684913 8.9769421
0.83463842 1.1721026 9.3005438
0.86459428 1.0622308 9.4067192
0.87686765 1.1268278 9.4412575
1.3314942 0.296473 9.45014
1.295235 0.16795917 9.4910936
1.3427925 0.24439447 9.3571844
1.3124237 0.27184567 9.3516817
1.4528748 0.15094185 9.4018583
1.1135669 -0.77183729 9.5301447
1.0603746 -0.91009516 9.3494139
1.0599806 -0.80958104 9.4736557
1.0083687 -0.91618609 9.4643478
1.1148825 -0.85206079 9.4144335
0.12034376 -1.3549871 9.4986773
0.22648585 -1.3578349 9.4275064
0.15144581 -1.4787829 9.4404249
0.14119495 -1.4764264 9.4148273
0.12523426 -1.4151268 9.437335
-0.96609527 -1.1879756 9.4245272
-1.0261818 -1.2629975 9.4467964
-0.98883456 -1.1518054 9.4061508
-0.86910307 -1.1431038 9.363636
-0.98956585 -1.159471 9.3934202
-0.97618884 -1.2990959 9.4203777
-0.97287732 -1.1703678 9.3436174
-1.0304464 -1.1700647 9.4923372
-1.5569589 -0.16599818 9.5048094
-1.4292514 -0.15602212 9.3891058
-1.5472839 -0.10599251 9.5032663
-1.4327652 -0.2512486 9.5431232
-1.4535068 -0.15348047 9.490263
-1.1824092 0.92029756 9.431529
-1.0943795 0.78425497 9.4677238
-1.2397766 0.77076679 9.4211359
-1.1532565 0.78766221 9.4083986
-1.1944453 0.78233713 9.4388018
-0.2710163 1.4402599 9.4687891
-0.29380631 1.4070963 9.4670715
-0.19394347 1.4247862 9.4540691
-0.24764222 1.5412246 9.351491
-0.19999917 1.6358417 9.4583416
-0.39025176 1.6252499 9.4844122
-0.20504062 1.4105667 9.4055405
-0.32026806 1.4694415 9.49224
0.87648481 1.2957432 9.4620228
0.81118011 1.2946647 9.348588
0.80099171 1.3118944 9.4388542
0.8752147 1.1729434 9.5194464
0.81829166 1.1805775 9.4710321
0.94228685 1.2648188 9.3745012
0.79420632 1.3072608 9.3489609
0.87589467 1.3209591 9.5019836
1.1047022 -0.10022606 9.0045395
1.1026838 -0.19114724 9.1316433
1.171991 -0.21916735 9.0508089
1.1528207 -0.28482267 9.0208549
1.0126371 -0.98446089 9.2632608
0.99313784 -0.86443812 9.380702
1.0229723 -0.89600378 9.2762842
-0.26795617 -1.1033776 9.1088486
-0.16697177 -1.027656 9.0196352
-0.18579489 -1.0884171 9.1071253
-0.18325287 -1.0567068 8.9930458
-1.0080341 -1.190909 9.3729753
-1.0769591 -1.0337464 9.2917147
-0.91234261 -1.155717 9.3446074
-1.4232988 -0.10926767 9.439579
-1.4666114 -0.20568372 9.3154078
-1.5180418 -0.04290507 9.3905602
-1.1555877 1.0366951 9.2928829
-1.1702191 1.024861 9.3889751
-1.1285936 1.009622 9.2850685
-0.24591771 1.4502609 9.2539473
-0.14326832 1.5554433 9.4577732
-0.20943658 1.3665125 9.4370909
1.0720237 0.51670653 8.9659796
1.0679677 0.62852573 8.9566212
1.0326471 0.58256912 8.9131098
0.98972166 0.52861798 9.0908546
1.023011 0.61458296 8.9353313
1.0664241 0.57169574 9.0730944
0.95361072 0.58207828 9.0651779
1.0412647 0.45101124 9.0385933
1.1206125 -0.2362663 9.08356
1.043836 -0.37052119 8.9555359
1.0378155 -0.33267176 8.9991999
1.1115742 -0.33604074 9.0791607
1.1003013 -0.40686485 8.8769979
1.1754837 -0.3507432 8.9072237
0.29490978 -1.2696586 9.3977032
0.16922103 -1.2814076 9.2544594
0.21467848 -1.2692177 9.3139467
-0.79427779 -1.1666952 9.2799187
-0.79388422 -1.0771722 9.3662004
-0.73687333 -1.1507535 9.3598309
-1.3618462 -0.32728082 9.3551979
-1.4524606 -0.34079215 9.4230843
-1.4463035 -0.35278818 9.2862968
-1.242164 0.25163755 8.9995985
-1.2480559 0.31767535 9.0429211
-1.1236928 0.40340617 9.047204
-1.1695172 0.43372428 9.0507193
-1.2705405 0.38663274 8.9482431
-1.1911551 0.42146301 9.0734291
-0.34603754 1.392481 9.3438864
-0.26155978 1.4180107 9.4512196
-0.41763562 1.3626745 9.2753334
0.722682 1.1143152 9.4631338
0.65238947 1.2151487 9.4016972
0.80228192 1.219811 9.2947912
0.87897134 0.92931372 9.3368387
0.94968677 0.8176564 9.1300993
0.9061752 0.88065666 9.2221518
0.93223953 0.90581197 9.1837225
0.88665473 0.96647686 9.2590227
0.85253149 0.59559268 9.109376
0.88817674 0.76531339 9.1006832
0.75052512 0.67175591 9.0880613
0.95600456 0.63245839 9.0364361
0.8600772 0.62215984 8.9509773
0.95152843 0.77148974 9.1308031
1.2597082 -0.11663067 9.1584082
1.1645095 0.0027980891 9.0938168
1.2392536 -0.016393824 9.0636234
1.0542222 0.0055335765 9.1697245
1.2049286 -0.042129885 9.2180262
1.1412293 -0.055325463 9.1137829
1.3082597 -0.073578455 9.1978445
1.3907148 0.15539271 9.4521561
1.3480951 0.10218223 9.440135
1.2955984 0.018008033 9.2701292
1.2910678 0.086765952 9.3540096
1.4295392 0.017223204 9.2585459
1.3793511 0.1782124 9.3880014
0.90517658 -0.96931791 9.1316681
0.97671926 -0.87237686 9.197525
0.98819184 -0.98777628 9.1692066
0.84847939 -1.0469756 9.2300682
0.84685194 -1.0108536 9.2234955
0.69802672 -0.99534732 8.9629192
0.68047071 -0.85295296 9.0611382
0.55307817 -0.99003673 9.1505985
0.68919528 -0.81291997 9.1327877
0.59347337 -0.93142498 9.0959129
0.66625094 -0.89254123 9.0333948
-0.085251763 -1.2471839 9.2045555
-0.030060118 -1.2258804 9.1954765
-0.11869294 -1.2510054 9.2834148
-0.066095032 -1.2282029 9.2756901
-0.043767452 -1.2555957 9.1224289
-0.16345145 -1.1495984 9.1061649
-0.032591481 -1.2681801 9.1322803
-0.0016163867 -1.4314861 9.3026409
0.0054153977 -1.425088 9.4047432
-0.011451002 -1.4015037 9.3921394
0.072330415 -1.4451082 9.373003
0.074389637 -1.3452191 9.4008665
0.035096362 -1.3931602 9.3959255
-0.93818271 -0.94965583 9.2851973
-1.0734828 -1.0115421 9.2480803
-1.0808444 -0.93171382 9.128706
-1.0998827 -0.98997128 9.2058926
-1.0327489 -0.86614168 9.1964483
-0.88634354 -0.59585792 9.053688
-0.96292681 -0.72202414 9.0616875
-1.0222788 -0.68905598 9.0868635
-0.93815762 -0.64791203 9.1286211
-1.0695654 -0.74964744 8.989233
-0.99978101 -0.66090429 9.000742
-1.3521864 0.09128385 9.1320229
-1.3748879 0.097186811 9.0883274
-1.369939 0.076114848 9.1632185
-1.4203466 -0.096881449 9.215107
-1.4127351 -0.067150004 9.23452
-1.4066617 0.10096344 9.1933022
-1.3449508 0.094785616 9.2094412
-1.271768 0.14155115 9.0791111
-1.1337608 0.18227929 9.1110268
-1.1781162 0.23383337 9.0617218
-1.1318692 0.14259279 9.1266079
-1.1652118 0.10221656 9.0707054
-1.20608 0.27992496 8.9196091
-1.2807237 0.071906418 9.0605717
-1.1640532 0.19080575 9.0203066
-0.94004405 0.94031256 9.2422628
-0.80747378 0.78262275 9.1556959
-0.85398507 0.94164866 9.1826296
-0.84123689 0.88179284 9.1571436
-1.0317234 0.98617715 9.1201477
-0.94571584 0.84219062 9.2189045
-0.675892 0.97045082 9.0938492
-0.651968 1.0050216 9.082921
-0.75695729 0.8867386 9.1133957
-0.73478079 0.94365042 9.0543337
-0.78530151 0.97495043 9.1989355
-0.72677499 0.92241603 9.0099421
0.009915798 1.2836648 9.2878942
0.059161156 1.4018853 9.2138939
0.0029444622 1.3859699 9.2039461
-0.146615 1.437463 9.2694273
-0.013644286 1.2891194 9.1959257
0.22269839 1.1899911 8.9506435
0.077687636 1.0935214 8.9734707
0.15911146 1.1540715 9.0345297
0.13954102 1.2575655 9.1542578
0.19872999 1.0696089 9.0823164
0.097587541 1.1205232 9.0123663
0.12417274 1.2572799 9.0996771
0.012575543 1.1797714 9.1261396
1.2355475 0.5427866 9.0744305
1.2103493 0.47839418 9.0569153
1.2152359 0.35595411 9.2390137
1.3327053 0.33445516 9.1587276
1.3391459 0.43727094 9.2439518
1.1207323 0.50037521 9.1982107
1.2459911 0.36603492 9.1746054
1.2992207 0.25830522 9.3178139
1.3123088 0.1980387 9.4317379
1.1888342 0.33211294 9.3455229
1.2052286 0.29422265 9.3438272
1.3119656 0.36395046 9.2527981
1.222823 0.24756272 9.3557987
1.0568992 -0.58893651 9.1741066
1.0968741 -0.42968959 9.1729088
1.0614529 -0.58709645 9.2389183
1.1227703 -0.56040889 9.1161127
1.2103106 -0.56844288 9.2714205
1.0477802 -0.68144315 9.3872957
1.0315639 -0.63336408 9.3685274
1.118258 -0.62741792 9.3190413
1.0249678 -0.7392152 9.3820562
1.040128 -0.74412417 9.3431978
1.1832561 -0.7542733 9.3566008
0.41204104 -1.2076631 9.287303
0.22232813 -1.1142328 9.3832674
0.22443983 -1.2493333 9.2381163
0.33271617 -1.2529976 9.2494812
0.35667083 -1.1480607 9.2613792
0.2688024 -1.1329859 9.201335
0.4559477 -1.0762696 9.0870838
0.39537311 -1.1574109 9.0690622
0.50560009 -0.98400986 9.0113411
0.57392794 -0.94489402 9.0058899
0.53839678 -1.2006965 8.9281654
0.6001026 -1.0130706 8.8955126
0.41409177 -1.2172796 9.0503473
0.45220676 -1.1734251 9.0693865
-0.60911721 -1.1271533 9.2790451
-0.70362717 -1.0951008 9.1989355
-0.70419323 -1.1685482 9.2658548
-0.77419776 -1.1889741 9.2795105
-0.71232599 -1.234228 9.2087145
-0.65337896 -1.082217 9.2421789
-0.44569823 -1.1815594 8.9635439
-0.3586823 -1.0855706 8.9790373
-0.4337481 -1.2226373 8.9261084
-0.40592006 -1.1747763 8.9917583
-0.44697201 -1.2114738 9.0726128
-0.43507978 -1.2395018 9.0420628
-0.57671076 -1.1297046 9.0963011
-0.52095783 -1.066504 9.0207815
-1.1840658 -0.31930983 9.1092815
-1.1383681 -0.36339626 9.1655693
-1.2932581 -0.24962503 9.2763901
-1.3378721 -0.41252565 9.162118
-1.1358377 -0.4022727 9.2298746
-1.174275 -0.46426526 9.1111355
-1.2319188 -0.30636665 9.245018
-1.1677549 -0.55203128 8.9560452
-1.1360917 -0.47543216 9.0426111
-1.1226951 -0.55895495 8.9709654
-1.0583071 -0.5513941 9.0891533
-1.1299683 -0.59374332 8.9136925
-1.0974952 -0.59538943 9.0259285
-1.0818088 -0.43445122 9.0549173
-1.146899 -0.55114448 8.8883562
-1.1536072 -0.48755586 9.0598631
-1.2960259 -0.57916707 9.0821095
-1.3149979 0.46650803 9.1459217
-1.2148737 0.55007654 9.1206493
-1.3001666 0.63732761 9.2154961
-1.1859695 0.55848324 9.1377411
-1.2823151 0.60426605 9.0952072
-1.2019947 0.73348516 9.3290176
-1.2373047 0.82736742 9.3249331
-1.1349741 0.77053273 9.3626966
-1.2576056 0.76484936 9.2781048
-1.1068738 0.82042032 9.3012018
-1.213066 0.77347893 9.3042421
-0.37737045 1.0995136 9.2024698
-0.48844749 1.1649123 9.1533537
-0.36557391 1.1856993 9.1927443
-0.3595089 1.2253301 9.2779026
-0.46617678 1.0328914 9.1136799
-0.49096793 1.1759535 9.1732788
-0.43649608 1.1632122 9.2903299
-0.59118932 0.96020603 8.924077
-0.5725348 1.0506566 9.1279774
-0.69490671 1.1105233 9.0777988
-0.62488097 1.1045372 8.9159451
-0.64554089 1.0727582 9.1156387
-0.55647683 1.1989514 8.969965
-0.61175972 1.165915 8.9765453
-0.62317497 1.0691689 9.0386992
0.60234737 1.159682 9.1257334
0.54189658 1.0579994 9.2177811
0.54109621 1.1115452 9.2009487
0.57316345 1.1371082 9.2501411
0.51464003 1.0690132 9.2833004
0.29092118 1.2464399 8.9929104
0.4268491 1.2125431 9.102684
0.33614507 1.0851152 9.0912848
0.31699318 1.2318426 9.0678024
0.29841998 1.1076639 8.9829435
0.36945373 1.1600535 9.0251198
0.44226447 1.2229747 9.0298767
0.46928307 1.2239498 9.0180244
0.87081021 0.20423546 7.9367118
0.84145188 0.22412086 7.8680577
0.41963038 0.67365837 7.830267
0.40881607 0.82172334 7.925755
0.25182217 0.86850011 7.9936504
-0.15442944 0.79383802 7.9776115
-0.26414934 0.89422399 7.9155288
-0.740273 0.28981939 8.0063057
-0.80636132 0.58613354 7.9045262
-0.82516468 -0.38603652 7.8474436
-0.95766747 -0.10385653 7.8834062
-0.52093631 -0.86177957 8.1839771
-0.54961425 -0.7016077 7.8374658
-0.33659244 -0.80039006 8.0068045
0.082955658 -0.79703677 7.9043856
0.18634906 -0.72644067 7.8771853
0.68331236 -0.43432146 7.9630308
0.80644184 -0.44607392 7.907722
-0.96270716 -1.2050669 9.2914734
-1.0262332 -1.3300998 9.4407225
0.95253694 1.3255579 9.4108343
0.80220443 1.2286644 9.3573265
0.8961606 1.2835025 9.4055176
-0.23794951 1.2842511 9.3522387
-1.6155447 -0.2262668 9.4101849
-1.354629 -0.072614565 9.4330311
1.2917693 0.21073556 9.4426394
1.2130932 0.21265002 9.4767323
0.21113521 -1.3843344 9.5422335
0.13144311 -1.3597063 9.3825483
-0.20096019 1.4885803 9.4955025
-1.4034576 -0.2440768 9.4923677
-1.3759549 -0.13676815 9.4483013
-0.9409923 -1.3434469 9.4359322
-1.5169072 -0.23886645 9.4648018
-1.4750192 -0.23167104 9.4682512
0.76513052 1.1059725 9.4978333
-1.3391753 0.98426133 9.4430227
-1.6654006 -0.16645777 9.4647913
1.2568786 0.069146998 9.3879786
0.084304608 -1.3790934 9.4712353
1.4376572 0.14635062 9.51373
-1.5982399 -0.22791022 9.4599419
-1.5064217 -0.10959622 9.4298277
1.5199573 0.21819538 9.3947306
-0.31213194 1.4218897 9.467392
-0.22273231 1.4548151 9.3902731
0.15660574 -1.5095975 9.4011669
1.415656 0.25452906 9.5464716
1.3960412 0.1358749 9.4795237
1.5496347 0.24001913 9.5171623
1.1481254 -0.80956572 9.5217552
0.13888265 -1.5602149 9.4078665
0.13268867 -1.5274965 9.4050894
1.4844545 0.18718302 9.4460373
1.2597958 -0.84338373 9.3605137
0.18036659 -1.56414 9.4370289
-0.9658227 -1.1620873 9.3789616
-1.534755 -0.12489399 9.3753147
-1.5305098 -0.25382814 9.5638752
-1.2766191 0.91974431 9.5020866
-0.34068677 1.5989839 9.5098333
0.97380888 1.1469125 9.396904
-0.26308304 1.3768585 9.4734488
-0.23775324 1.3163062 9.423007
-1.1334018 0.93906945 9.5251341
-1.3217328 -0.17964433 9.3655977
-0.8653692 -1.1189661 9.4629269
0.13818628 -1.3257686 9.3917093
1.0324658 -0.81118071 9.5385952
1.2764207 0.098645806 9.3680315
0.59878308 -1.1079087 9.0322056
-0.70553964 1.0781085 9.0044813
-0.85280734 -1.1965503 9.1257505
-0.88708735 -1.1870992 9.151001
-0.77057391 -0.8899948 8.8964272
-0.70454037 -0.96173137 8.9666691
0.82294077 1.0683789 9.1373272
0.693151 1.2478828 9.2092791
0.58494931 1.045047 8.9227018
0.5874868 0.9278025 8.8495798
-0.16863862 1.291308 9.294342
-1.2966453 -0.079629272 9.2726393
-1.5410712 -0.1818082 9.2198906
-1.4330902 -0.01465538 9.189827
0.0023087524 -1.2358891 9.0500622
-0.1328623 -1.3029877 8.9897766
0.00023723344 -1.3253437 9.0850172
0.1523913 -1.4593025 9.2921829
1.2301471 0.36050937 9.2537537
0.11361504 1.3325365 9.160408
-0.072439209 1.3074677 9.1584949
-0.095324069 1.3595865 9.3757963
1.4391012 0.10778475 9.3045149
0.36601809 -1.4193686 9.2043629
0.41218379 -1.177264 8.9932375
0.47072074 -1.2854811 9.079277
0.49563664 -1.1758136 9.0747786
-0.48174196 1.4294834 9.1068354
-0.51786822 1.2308937 9.0415163
-0.50252014 1.0910354 9.1639071
-0.46275708 1.2469412 9.103467
-0.38939634 1.3115543 9.2680702
-0.4215115 1.3657503 9.3757181
1.2855922 -0.072035752 9.294241
1.1517549 -0.020732658 9.3695078
1.4120399 0.43987381 9.2123537
-1.3457783 -0.25232843 9.241313
-1.3282079 -0.3733936 9.254921
-0.080304682 -1.2838118 9.2112885
-0.11329156 -1.2536904 9.2099915
0.29938972 -1.2473483 9.1899672
0.24739009 -1.2111739 9.3590832
0.54769087 1.0117023 9.0568428
0.83649635 1.2668128 9.3539295
-0.81010747 -0.96229452 8.9770555
-0.90592366 -1.209825 9.1681147
1.1876884 0.095827483 9.3582439
0.0064512002 -1.3206967 9.2760181
-0.082954697 1.4062884 9.198575
0.017909603 1.1589611 8.9651279
0.027736044 1.2432007 9.0617533
0.055077787 1.320428 8.9543247
1.3955764 0.27515829 9.4325094
1.1032593 -0.68182451 9.3289461
0.31988981 -1.2565634 9.2212372
-1.1867748 -0.4189648 9.2843943
-1.2070347 0.74713147 9.3517199
-0.32745463 1.1562432 9.2554131
0.19251955 -1.4528675 9.4937572
0.15667817 -1.5117871 9.5509338
-0.20698625 1.4892043 9.3824444
-0.29835361 1.4608546 9.3621616
-1.511655 -0.22380018 9.4057455
-1.5657314 -0.24153067 9.4404764
-1.2371171 0.77291167 9.5387096
-1.4414217 -0.23220009 9.3512363
0.8967483 1.1901155 9.4560061
-0.19865145 1.5006255 9.5416899
0.25949988 -1.3789482 9.4376249
-0.96136945 -1.2522157 9.5218439
1.4167864 0.21528579 9.4781723
1.3639466 0.17395063 9.4550228
1.3173051 0.28559306 9.3795824
1.1292471 -0.80984551 9.418107
1.0151988 0.67857969 9.0923862
0.55797905 -0.98090082 9.0990849
-1.070992 -0.51722759 8.9417009
-0.60534781 1.0880499 8.9304771
0.52157378 -1.1699888 9.0130186
-0.74623835 -1.1775359 9.19876
-0.47657922 -1.1607882 9.0197659
-1.0824347 -0.45845434 9.0090065
-0.51545715 1.0815296 9.1816664
0.43554065 1.1414739 9.0663452
1.4022254 0.28967595 9.3554697
0.17610021 -1.3846592 9.4867525
-1.4206948 -0.18068269 9.4278326
-0.28873366 1.5048589 9.4699097
1.0063245 0.65386146 9.0845566
1.0818983 -0.36375219 8.927865
-1.0937959 0.42296112 8.9537354
0.92433423 1.0133238 9.2157898
0.90101582 1.0421256 9.1803284
1.0902995 -0.21357003 9.2873383
0.90474945 -0.87112743 9.2332058
0.84643847 -0.90269727 9.2316895
-0.11975027 -1.1445748 9.112895
-1.0143352 -0.89921993 9.2635765
-1.005568 -0.91474283 9.234684
-1.4748306 0.099435158 9.1918497
-0.057779387 1.4426616 9.2915926
1.0502133 0.56365836 9.1597042
1.0445602 -0.44371352 9.1083231
1.071197 -0.593077 9.1883535
0.241005 -1.1559626 9.3053408
0.52333659 -0.97036517 8.9840193
-0.31648755 -1.1742753 9.1043196
-1.197515 -0.40841639 9.1889067
-1.1524848 -0.62086225 8.915451
-1.2296457 0.52243155 9.0115395
-1.1498539 0.5907504 9.2410841
-0.34890053 1.1954818 9.2976179
-0.68703264 1.204132 8.975771
0.46321175 1.125458 9.3110142
0.20268898 1.0834016 8.9812307
0.75364614 0.014499174 7.9472537
0.51789856 -0.55166131 7.9620433
-0.088890441 -0.74516821 7.9071498
-0.638744 -0.55184865 7.9650497
-0.44590271 -0.81762373 8.1814709
-0.93140769 0.1021243 7.9043856
-0.51662248 0.69397467 7.8348818
-0.046277564 0.90126747 7.8235154
0.53109455 0.6097886 8.0031338
0.42617115 0.82383299 8.3430271
0.74257696 0.38096404 7.9888196
0.17897648 0.79015243 7.8267488
-0.52297062 0.81610471 7.8938375
-0.63095134 0.67196363 7.8193007
-0.81735349 0.2819151 7.9662256
-0.73042041 -0.43270397 7.9005904
-0.25371337 -0.81664962 7.90627
0.37164673 -0.78989816 7.8196187
0.46266961 -0.57740861 7.8621774
0.6801666 -0.25024638 7.9904122
-0.89734739 -1.2567874 9.3323927
0.73878241 1.233264 9.352108
0.73794967 1.1995871 9.3869772
-1.4594011 -0.28162396 9.4934464
-0.20336667 1.3406209 9.3204165
-0.13791305 1.3098379 9.2474222
-0.18604805 1.2574328 9.3741035
-1.4139242 -0.19795012 9.4556513
-1.3274596 0.015376466 9.3367672
-1.3161298 -0.041547187 9.3189955
-0.2133522 -1.2136229 9.0990467
0.16330118 1.2375952 9.0490885
0.083846927 -1.3935082 9.5247984
-0.31916144 1.597586 9.461235
-1.3047214 0.86476237 9.4840508
-1.2920558 0.88178402 9.3944693
-0.98760992 -1.2350488 9.4388065
-0.86956811 -1.3149385 9.3784466
-1.3518555 -0.10826163 9.3909845
-1.2234584 0.82776362 9.5317011
-1.6889775 -0.16070299 9.4363604
1.1656204 0.16206712 9.4062176
1.2434641 0.0049972287 9.3611412
1.2166257 0.20644331 9.4072781
-0.23209161 1.5645063 9.5136375
0.13741001 -1.5770043 9.4321375
1.2012583 -0.89816993 9.4293165
1.4220985 0.34301794 9.4552155
-0.19810291 1.4344308 9.395628
0.11123266 -1.48499 9.5045004
1.2428041 0.18357471 9.5122833
1.5074799 0.30699477 9.4894409
0.87026262 1.2462974 9.4961748
0.025271233 -1.2348633 9.2474899
0.014850605 -1.2339375 9.2484665
0.11380556 -1.4024788 9.2734919
1.2208579 -0.81584209 9.3853264
1.2489378 -0.83890116 9.4363213
1.1786588 -0.95646381 9.3823957
-0.94376516 -1.2539647 9.3977795
-0.28813073 1.2936479 9.5266256
-0.3429015 1.4145191 9.3476763
-1.4693177 -0.27194783 9.4495878
-1.3736799 -0.16263698 9.397563
0.24182498 -1.4621667 9.3913679
0.18723242 -1.3136666 9.4060173
1.3280821 0.14954492 9.5202522
1.3306704 0.19947936 9.4053545
1.0947613 0.54859084 8.9122372
1.0477693 -0.28952372 8.9769669
0.53801137 -0.99678785 9.0239782
-0.46095142 -1.2164336 8.8898478
-1.0636466 -0.53227055 8.8908358
-1.2437193 0.27003279 9.0261736
-0.58319712 1.1842674 8.9785595
0.30055979 1.1008255 8.9538031
-0.81768388 -1.0431788 8.9824991
0.692855 1.1910281 9.0466528
-0.030801134 1.3253943 9.2561045
-1.3188807 -0.049363229 9.219964
-1.5593176 -0.11286221 9.2922707
-0.0039483951 -1.4133062 9.14186
1.0040675 0.33684891 9.250041
1.1592968 0.27321431 9.3216305
-0.14116022 1.3486162 9.1647215
1.4476888 0.066380091 9.4475851
0.37541139 -1.3748473 9.2245741
0.47313541 -1.1636462 9.0475883
-0.46334472 1.3415608 9.2143087
-0.53161275 1.0955881 8.9625683
-0.52048391 1.2152711 9.2632551
-0.38566223 1.3259645 9.4286976
1.2338879 -0.065641657 9.189785
-1.291163 -0.46243337 9.1596994
-1.2370005 -0.3462595 9.3210115
-0.15446541 -1.1403047 9.1056023
0.20049645 -1.1847868 9.4007511
0.94658339 1.0283241 9.4133816
0.84311038 1.008142 9.2478218
0.93651032 0.76529735 9.1533794
0.98908144 0.91325659 9.2217684
1.2048708 0.0094327461 9.1439562
0.90727341 -0.87431437 9.3997879
0.89154804 -0.9178167 9.3199606
0.72547847 -0.92972106 8.9684286
0.84873885 -1.0354133 9.0779085
-0.22799028 -1.2151901 9.1782808
-0.9553315 -1.0670137 9.2386875
-1.0151262 -0.91890389 9.2908649
-0.99566746 -0.65390491 8.9682465
-1.0816429 -0.78088808 9.1302052
-1.2441074 0.13308118 9.0996838
-0.96352702 0.96063316 9.1962786
-1.181131 1.0166274 9.3494625
-0.80522388 1.0011289 9.0093403
1.0555434 0.42895859 9.2273836
1.0495703 -0.50017852 9.0607147
1.0842996 -0.45796961 9.0401335
1.1084963 -0.56118703 9.2060394
0.43066984 -1.1254404 8.9900217
-1.075245 -0.42369929 9.1077414
-1.2501043 0.40079081 9.0722885
-1.1689343 0.52967089 9.1824141
-1.2241198 0.5544495 9.2929344
-0.49010184 1.0920749 9.1051235
-1.2505357 1.0054786 9.459198
0.050343405 -1.4331336 9.5037594
-0.20970304 1.4924924 9.3880939
-1.5465024 -0.26513839 9.4241848
1.228961 -0.90260714 9.5142069
-1.3634158 -0.20579132 9.4093285
0.97232103 1.2949129 9.3716936
-0.20458062 1.5235708 9.4561872
0.16067748 -1.4138722 9.5077724
-1.0184438 -1.1413792 9.5174723
1.3779906 0.28858599 9.3592882
1.407546 0.32576028 9.4375381
0.89023542 1.1896819 9.3602877
1.433024 0.26613596 9.4446335
0.20040303 -1.4837538 9.5118532
-1.5701616 -0.19506261 9.4984598
-0.27269632 1.426024 9.4541082
1.1440746 -0.87618572 9.2778196
-0.9436329 -0.99179143 9.3955221
-1.1550049 0.91952729 9.2959204
1.0719539 -0.3309294 9.0567379
-1.12997 0.4526979 9.0138969
0.91760206 0.94747072 9.2458611
0.88625509 -0.94376767 9.2720442
-1.0455769 -0.81883973 9.2281141
1.1699139 -0.60189348 9.1367769
-0.63670194 -1.1249862 9.1854706
-0.42360163 -1.2002963 9.0099344
-1.1482667 0.67629737 9.2911444
0.37748346 1.1458634 9.0845766
0.25906858 0.82432681 7.8017573
-0.81221008 0.74169505 8.835741
-0.45978338 -0.81851459 7.952384
0.867625 -0.70705467 8.6721449
0.77496499 -0.83484453 8.8354225
0.8038711 1.1835582 9.4949989
-0.20863415 1.5141256 9.4950027
-1.0101495 -1.2816058 9.4354763
-0.96737617 -1.250212 9.4943905
-1.2641451 0.93187118 9.3645554
-1.6701074 -0.3028422 9.4620914
0.071046434 -1.6124821 9.4346266
0.185523 -1.6172881 9.342494
1.1801631 -0.88507515 9.4404058
1.09491 -0.9442811 9.4885511
1.0722519 -0.85438913 9.3426943
-1.2248561 0.95364004 9.5100908
-1.2637614 0.97941166 9.3640137
0.93773949 0.46415058 9.0059071
0.54045498 -1.0835201 9.0880623
-0.99424553 -0.54171026 9.1314507
-0.58380413 1.0625266 8.9256363
0.87009567 1.1204187 9.3857985
-0.86996758 -1.222589 9.5350342
-0.91236877 -1.2048454 9.4336557
0.83304298 1.1923703 9.413722
0.85307729 1.2895464 9.3899117
1.0971581 -0.17326277 8.9873514
1.1214966 -0.13615373 9.0381565
-0.300872 -1.0545765 9.0398417
-0.34191871 -1.0272933 8.9731636
0.24074693 -1.3279842 9.2660913
0.22696476 -1.3590848 9.4429626
-1.20522 -0.20828632 9.2617531
-1.4598471 -0.22571923 9.3882713
-0.27907771 1.2014078 9.2824535
-0.26123536 1.3905061 9.288476
-1.1933661 0.20314449 8.9750443
-1.1106241 0.33537447 9.0108719
0.15066803 1.1845601 9.0249186
0.12357223 1.0404907 8.9226761
1.3174314 0.23345441 9.335454
1.2786496 0.27050564 9.2693043
0.59816521 -1.0025157 8.9257154
-0.41852355 -1.2144907 9.0062895
-1.0948133 -0.427865 9.0418034
-0.57454538 1.0909024 8.957921
0.38533589 1.2030315 9.1080008
2.0024824 0.63897753 -0.0078814356
2.030179 0.32723615 -0.0023524356
1.9261563 0.29324797 -0.050253481
1.8876443 0.72212023 0.074301191
1.9416231 0.057829063 0.029990222
1.9175092 0.089874931 0.10005794
-2.1200294 -0.35225806 0.041540205
-1.9618946 -0.2685822 0.050756868
-2.083472 -0.026312184 0.15868446
-2.0700881 0.068607554 0.019314986
-1.8173033 0.9046914 0.016162325
-1.8233451 1.0077885 0.031602804
-1.6574556 1.1556493 0.13044333
-1.714233 1.30304 -0.035369769
-0.68105096 1.8930708 -0.014660223
-0.67870241 2.0646648 0.02753411
-1.0339819 1.832394 0.010110566
-0.99071002 1.8037597 0.15352637
0.52243704 1.9059789 0.048784364
0.56626701 2.0440629 0.057828698
0.30355233 2.1327264 0.070614718
0.1831353 2.005455 0.080322385
1.4581594 1.4482217 0.011565962
1.5508376 1.261297 0.057476688
1.5619707 1.2476238 0.018039646
1.3842247 1.5019022 0.077111326
1.5147535 1.1707792 -0.0090873512
1.5805694 1.2614568 -0.0053096353
1.387096 1.4093081 0.10874078
1.3617077 1.3818409 0.099288434
-1.7092025 -1.1737754 0.13405232
-1.7178781 -1.1850218 0.14361502
-1.4559777 -1.3407847 0.026825542
-1.463474 -1.3430432 -0.001085534
-0.32199469 -2.0571942 0.068266734
-0.30267009 -1.9585725 0.058480341
-0.66616118 -1.8320676 0.13695419
-0.62782753 -1.9658724 0.03301103
0.55407012 -1.8540192 0.13377032
0.61592156 -1.8306117 -0.030358469
0.89873677 -1.8503134 0.10403727
0.80082589 -1.672757 0.085864075
1.7167917 -0.98790115 -0.049556941
1.8409977 -0.88718551 -0.051576816
1.8019683 -0.7106843 0.0073308772
1.8520074 -0.61151731 -0.062306952
1.759449 -0.88311702 0.13753684
1.8399298 -0.96283382 0.054885387
1.4632797 -1.1910481 0.12163128
1.6684661 -1.1417525 -0.020604346
1.1972589 1.7153304 -0.14243852
1.3764868 1.4457349 0.035100713
1.3215111 1.4247098 -0.048884425
1.1586565 1.718612 -0.12010855
1.4020214 1.4838078 -0.025952328
1.3410609 1.3900081 0.036492649
1.6408483 1.2495869 0.025846075
1.6749101 1.1625471 -0.0083512869
1.7757325 0.67691022 -0.021224763
1.9505231 0.58793503 -0.12475908
1.8701062 0.25698036 0.028786125
1.9287558 0.41878727 -0.089222699
2.0474615 0.0042148954 -0.034760796
1.9955822 -0.04960959 -0.041454501
1.9479641 0.20706883 0.031650648
1.9134233 -0.025303902 -0.10252927
2.002171 0.38096774 0.023160597
1.9693533 0.36685121 -0.024217002
1.8089777 -0.64293522 -0.13125852
1.9588265 -0.67946196 -0.023361934
1.7297963 -0.81552035 -0.091228746
1.7859384 -0.90546316 -0.071350321
1.8163128 -0.82754266 -0.10422984
1.5685427 -1.2601981 0.063130356
1.5178978 -1.0917974 -0.045795292
0.83816767 -1.8020619 -0.024966579
0.9342162 -1.7431085 -0.058981288
1.1157805 -1.5683724 -0.022179829
1.2203274 -1.5731552 -0.1384775
0.80203509 -1.806722 -0.13825317
0.79586804 -1.7478619 0.01459261
0.64926589 -1.8285241 0.053010706
0.52144635 -1.9445074 -0.025427172
-0.12206924 -1.9504071 -0.10709539
-0.4536657 -2.0301657 -0.11441579
-0.45041075 -2.0329463 -0.040394336
-0.1737434 -2.0325286 -0.0074959947
-0.61218148 -1.8245493 -0.095502816
-0.63982612 -1.8477774 0.038775176
-0.38197622 -1.970062 -0.03594736
-0.3190307 -2.0013101 0.070098154
-1.4564711 -1.3196063 0.049112186
-1.4524944 -1.4239529 0.046252489
-1.3357069 -1.6236084 -0.013933871
-1.2307986 -1.5839546 0.05040757
-1.5661176 -1.421717 0.028864721
-1.4645621 -1.3058569 0.014203101
-1.7507204 -1.1743257 0.018005544
-1.7034556 -1.1582065 -0.076305382
-2.0377347 -0.59088707 -0.028039893
-1.9248525 -0.6051572 0.0048109535
-2.0435176 -0.35734123 -0.11117548
-2.0936637 -0.24045365 -0.16951819
-2.1671166 -0.15976278 0.001800503
-2.1269228 0.090008512 0.024353933
-2.0288646 0.079484917 -0.086695895
-1.9714452 -0.26999733 0.011785024
-1.8305212 0.99558622 -0.11830381
-1.887073 0.99788028 -0.038553972
-1.9766129 0.75181377 0.013556363
-2.0721312 0.61689478 -0.0034786472
-1.7412624 1.1599032 0.030896129
-1.9261631 1.0381205 -0.0060241134
-1.7791387 1.3299901 -0.049540866
-1.3120787 1.6575735 -0.10521749
-0.9576546 1.812627 0.0015024435
-0.86376512 1.812714 -0.0070825517
-1.2180839 1.746541 -0.00035312565
-0.9360851 1.7803926 0.079672687
-0.71019757 1.9370461 -0.046414614
-0.58668345 1.9185414 0.059656665
-0.87894481 1.9340339 -0.12763841
-0.087258436 2.0836866 -0.13131458
0.2635375 1.981041 -0.11771062
0.17934994 1.9603876 0.02143221
-0.07109908 2.1482086 0.019930189
0.63976318 2.0167682 -0.061918166
0.32013625 1.9883165 0.073798373
0.28029823 2.1012731 -0.085382298
0.53860444 2.0577807 -0.10347098
-0.0044353954 0.099402249 -0.025093686
-0.6376735 -0.51670671 -0.055858202
-0.74793363 -0.32578138 -0.06181775
-0.80858672 -0.13954785 -0.05131308
0.87684846 -0.090571694 -0.12073819
0.57655203 -0.40912089 -0.090239868
0.54288334 0.12463997 -0.069483645
0.032203317 0.049375914 0.024991674
0.30820376 -0.5641678 0.04329453
0.49073529 -0.52676988 0.07909859
0.49375439 -0.36558601 -0.023488006
0.014957289 -0.80282176 0.12070819
-0.15181932 -0.58476406 0.13265009
-0.52430779 -0.68042773 0.018618397
-0.52470297 -0.44223022 0.12119094
-0.97199374 0.28076214 0.10974886
-0.73843062 -0.099532194 0.060699567
-0.60277569 0.36478207 0.035394922
-0.30320254 0.5708676 0.15746889
-0.73948944 0.63697869 0.07375966
0.079789318 0.67312521 -0.029761598
-0.24772602 0.86483508 0.12522808
